0.842368 0.298311 0.613081 0 0 0
-0.424956 0.464607 0.587983 0 0 0
-0.0678152 -0.0748361 -0.797542 0 0 0
0.00906163 0.545599 -0.292658 0 0 0
0.088855 -0.198843 -0.295738 0 0 0
0.486446 -0.298158 5.38144 0 0 0
-0.510085 0.255451 -0.774943 0 0 0
1.22634 0.0266641 -0.109764 0 0 0
0.535663 0.169367 -0.604094 0 0 0
0.601055 -0.277449 0.417582 0 0 0
-0.386509 -0.281471 0.0639136 0 0 0
0.164155 -0.141085 0.0138498 0 0 0
-0.432022 0.194635 -0.148587 0 0 0
0.352843 0.425138 2.8086 0 0 0
-0.111951 -0.064267 -0.436298 0 0 0
0.141501 -0.0754569 -0.962555 0 0 0
0.489229 -0.167451 0.144521 0 0 0
-0.00499758 0.285105 0.0082773 0 0 0
0.847759 0.521193 0.546679 0 0 0
0.499966 0.0642063 0.751253 0 0 0
0.124416 0.284633 5.97599 0 0 0
-0.122773 -0.183894 -0.253779 0 0 0
-0.46408 0.0475356 6.00277 0 0 0
-0.382472 0.996703 -0.172875 0 0 0
0.0541609 -0.0114495 0.433508 0 0 0
0.45808 1.08331 0.27639 0 0 0
0.266842 0.179793 0.57334 0 0 0
0.82679 -0.196082 2.7628 0 0 0
-0.208281 0.31797 6.59021 0 0 0
-0.00835294 -0.327532 0.152553 0 0 0
-0.00737893 0.167411 0.421291 0 0 0
0.305542 0.478951 5.38272 0 0 0
0.530641 0.040698 0.459386 0 0 0
-0.327835 -0.00343445 0.517327 0 0 0
-0.318362 0.0211832 -0.50567 0 0 0
-0.249121 0.151854 0.716122 0 0 0
0.236458 -0.937235 -0.660568 0 0 0
-0.416349 -0.213829 -0.715743 0 0 0
0.195185 -0.0723866 -0.805292 0 0 0
0.0196776 -0.463249 0.93468 0 0 0
-0.0823354 -0.438788 0.612727 0 0 0
-0.0169331 -0.250957 0.629517 0 0 0
0.0369594 1.00044 0.848937 0 0 0
-0.272344 0.220765 -0.421939 0 0 0
0.256273 0.765736 0.887858 0 0 0
0.129276 0.0994722 5.40776 0 0 0
-0.157734 -0.680999 0.768639 0 0 0
0.260509 0.555912 -0.305592 0 0 0
0.141661 -0.0748545 0.607352 0 0 0
-0.835465 -0.285591 0.258418 0 0 0
-0.165977 0.037302 0.25708 0 0 0
0.185348 -0.796604 5.42236 0 0 0
0.283776 0.0659787 0.878956 0 0 0
0.361727 -0.432858 -0.0335492 0 0 0
-0.3545 -0.165935 0.870921 0 0 0
-0.37336 0.227432 24.6176 0 0 0
-0.681886 0.0794103 0.565438 0 0 0
-0.745046 -0.7554 0.848634 0 0 0
0.135685 0.146106 0.701378 0 0 0
-0.314708 -0.367856 25.2131 0 0 0
-0.534912 -0.538516 0.863308 0 0 0
-0.553418 -0.0705835 6.56847 0 0 0
-0.454848 0.171045 6.62273 0 0 0
0.179576 -0.00723276 0.643204 0 0 0
0.0176063 -0.0285857 -0.215853 0 0 0
-0.580744 -0.0600974 -0.549033 0 0 0
-0.613191 -0.163794 -0.138242 0 0 0
-0.238421 0.144462 0.799278 0 0 0
-0.112323 -0.212602 -25.9289 0 0 0
0.00885464 0.224878 0.966225 0 0 0
0.495351 0.561883 -0.773331 0 0 0
0.245724 -0.419962 5.99901 0 0 0
-0.10985 -0.0189795 0.247974 0 0 0
-0.180827 -0.439182 -0.600734 0 0 0
0.186985 -0.0217735 0.350023 0 0 0
0.349892 0.0225076 0.204074 0 0 0
-0.44857 -0.238469 2.77868 0 0 0
-0.0424849 -0.335329 -0.258905 0 0 0
-0.665573 -0.361417 -0.264292 0 0 0
-0.467983 0.474841 2.18927 0 0 0
-0.150694 -0.0809253 0.697928 0 0 0
0.335445 0.477029 6.6328 0 0 0
-0.509542 -0.215128 0.84949 0 0 0
0.431053 0.183129 -0.104428 0 0 0
0.200399 -0.101282 0.614656 0 0 0
-0.184994 -0.0482268 -0.0186547 0 0 0
0.00475648 0.109548 -0.928387 0 0 0
0.227318 -0.437506 -0.636049 0 0 0
0.312747 0.717504 5.41699 0 0 0
0.221687 -0.348888 0.549576 0 0 0
-0.0594986 -0.00556137 0.00172824 0 0 0
0.622711 0.255064 -0.842112 0 0 0
0.431455 0.059006 -0.0592734 0 0 0
-0.453567 -0.217146 0.485194 0 0 0
-0.357225 -0.292871 6.57413 0 0 0
-0.225499 0.504132 0.734286 0 0 0
-0.131635 0.109464 -0.539284 0 0 0
0.104111 0.614522 0.747452 0 0 0
-0.31856 -0.0670994 -0.293356 0 0 0
0.145976 -0.396315 -0.18973 0 0 0
-0.992397 0.959121 25.2169 0 0 0
0.758746 0.375854 2.17572 0 0 0
-0.31782 -0.323968 0.282812 0 0 0
0.50345 -0.407066 0.791519 0 0 0
0.117824 -0.199323 0.689271 0 0 0
0.177243 0.144234 0.753174 0 0 0
0.15947 -0.767122 0.192427 0 0 0
-0.143393 -0.137048 -0.192187 0 0 0
-0.054545 0.396844 0.204998 0 0 0
0.86138 0.45732 2.22119 0 0 0
0.294006 0.498909 5.42282 0 0 0
-0.0580286 0.260715 -0.0132827 0 0 0
-0.0229012 -0.0146541 0.451685 0 0 0
0.0836541 0.0722284 -0.000105704 0 0 0
-0.327537 -0.507846 0.303652 0 0 0
-0.208865 0.28207 2.82167 0 0 0
-0.0645677 -0.38054 5.9727 0 0 0
0.131174 -0.0776191 5.42944 0 0 0
-0.65014 0.0568462 -0.949437 0 0 0
-0.0929277 0.635766 6.56767 0 0 0
-0.550218 0.429547 0.873707 0 0 0
-0.0928361 0.146809 0.677333 0 0 0
-0.0994026 0.0663928 6.56745 0 0 0
-0.175025 -0.211051 0.135352 0 0 0
-0.335942 0.126211 0.49323 0 0 0
-0.315367 0.102594 56.3408 0 0 0
-0.0333407 -0.0577282 0.704585 0 0 0
-0.415559 -0.525579 0.58112 0 0 0
0.375713 0.330167 -0.622363 0 0 0
0.355371 -0.0894383 0.46799 0 0 0
-0.248692 -0.900519 0.685158 0 0 0
0.325367 0.0691878 0.649812 0 0 0
0.480953 -0.169636 -0.24296 0 0 0
-0.391365 -0.368877 0.453922 0 0 0
0.93981 -0.0195472 -0.13182 0 0 0
-0.0629866 0.436577 0.0490279 0 0 0
-0.484724 0.224837 2.771 0 0 0
-0.973359 0.826888 0.26131 0 0 0
-0.434232 -0.222101 -0.631719 0 0 0
-0.255821 -0.225133 6.5993 0 0 0
0.0312037 -0.0535478 0.0917769 0 0 0
-0.144369 0.190135 -0.515384 0 0 0
0.000131572 -0.18492 6.03159 0 0 0
-0.268252 -0.0701274 0.396667 0 0 0
0.428551 0.52161 0.39181 0 0 0
-0.100434 -0.0382861 0.00223591 0 0 0
0.269008 0.2652 0.535767 0 0 0
-0.475665 -0.261688 5.36513 0 0 0
0.131777 -0.154231 -0.641635 0 0 0
-0.0224052 -0.275494 -0.129382 0 0 0
0.357134 -0.568275 0.122984 0 0 0
0.289194 0.34442 2.83504 0 0 0
-0.291858 0.644028 5.43015 0 0 0
-0.354885 0.215643 0.187489 0 0 0
0.0539766 -0.0614473 0.813806 0 0 0
0.270982 0.264755 -0.37584 0 0 0
-0.320638 -0.162717 -0.165245 0 0 0
0.0260195 0.199612 -0.600466 0 0 0
-0.582295 0.19244 2.16553 0 0 0
-0.190623 -0.345191 2.1825 0 0 0
0.374929 -0.206677 0.523116 0 0 0
0.0222396 -0.101638 0.673946 0 0 0
0.52169 -0.442392 -0.61328 0 0 0
0.0828736 -0.0371402 0.83146 0 0 0
-0.128914 0.300976 5.41359 0 0 0
-0.133556 0.247982 -0.195759 0 0 0
-0.1036 -0.368069 2.83991 0 0 0
0.0671517 -0.421518 -0.726473 0 0 0
0.252823 0.00186949 2.80974 0 0 0
-0.516471 0.459272 -0.651293 0 0 0
0.313547 0.544072 -0.414784 0 0 0
-0.301286 -0.0980702 -0.249989 0 0 0
0.334046 0.676209 0.212985 0 0 0
-0.0311964 -0.151909 5.40113 0 0 0
-0.220208 0.221998 -0.276919 0 0 0
-0.297605 -0.288145 6.01341 0 0 0
-0.158604 0.0682246 0.864825 0 0 0
-0.750971 0.188151 5.39881 0 0 0
0.268802 -0.36083 0.953031 0 0 0
0.317793 0.187288 0.388405 0 0 0
-0.325785 0.4702 5.41635 0 0 0
-0.574354 -0.233557 0.246362 0 0 0
0.0822188 -0.0951116 2.17855 0 0 0
0.0541551 0.535162 5.43958 0 0 0
-0.133527 0.364669 0.104744 0 0 0
-0.133845 0.284556 -0.677318 0 0 0
-0.417679 0.207399 0.400396 0 0 0
-0.642191 0.176589 -0.181158 0 0 0
0.331826 0.279131 0.769385 0 0 0
0.0803131 -0.0142453 0.449415 0 0 0
0.248468 0.0418843 -0.725845 0 0 0
-0.0474143 -0.364427 0.343999 0 0 0
0.0288838 0.385556 -0.664445 0 0 0
0.376279 0.0326815 0.663894 0 0 0
-0.0217456 0.591289 -0.139978 0 0 0
-0.31445 -0.495331 2.78261 0 0 0
-0.0718338 0.322269 0.557802 0 0 0
0.155538 0.197748 -0.252664 0 0 0
-0.0239158 0.142252 -0.0726491 0 0 0
0.025178 -0.191143 5.37326 0 0 0
0.406384 -0.121302 0.922381 0 0 0
0.15847 0.42924 2.18152 0 0 0
0.363983 0.366628 -0.878708 0 0 0
0.0764654 0.360132 5.36746 0 0 0
-0.241411 -0.136037 0.157055 0 0 0
0.491627 0.117738 2.77913 0 0 0
0.00647577 -0.0348094 0.227147 0 0 0
-0.189121 0.254048 0.251116 0 0 0
-0.424382 0.0239567 2.8181 0 0 0
-0.1263 -0.714675 -0.25351 0 0 0
-0.262235 -0.362997 -0.376253 0 0 0
-0.443005 0.320865 -0.277387 0 0 0
0.103709 0.161163 5.40573 0 0 0
-0.378731 -0.0642774 0.487396 0 0 0
0.0997687 -0.311533 -0.865481 0 0 0
-0.00731753 -0.482888 -0.078545 0 0 0
0.140088 0.153142 0.63487 0 0 0
-0.248654 -0.00757437 -0.308656 0 0 0
0.20929 0.0386812 0.7958 0 0 0
-0.2753 0.298404 0.910906 0 0 0
0.136912 -0.237799 -0.279524 0 0 0
-0.0600984 -0.461359 0.774501 0 0 0
-0.0216708 0.183897 -0.845231 0 0 0
0.00453536 0.23468 0.672687 0 0 0
0.26227 -0.137476 -0.668101 0 0 0
-0.633831 -0.184344 6.5609 0 0 0
-0.25733 -0.427983 5.40378 0 0 0
0.289876 0.334954 0.746476 0 0 0
0.197071 0.0658013 0.80365 0 0 0
-0.079668 -0.161842 -0.635132 0 0 0
0.22134 0.377698 -0.0845076 0 0 0
0.154123 0.153533 -0.424044 0 0 0
0.278177 -0.0306008 0.789965 0 0 0
0.0119694 0.497693 -0.042813 0 0 0
0.200407 0.361686 0.854779 0 0 0
0.207848 0.364577 -0.825918 0 0 0
0.196494 0.219374 2.76851 0 0 0
0.0696226 -0.0686548 -0.252333 0 0 0
-0.232394 0.462042 0.154368 0 0 0
0.499207 0.377731 6.61474 0 0 0
0.0474938 0.0105945 -0.739231 0 0 0
0.141929 -0.147563 5.42874 0 0 0
0.597028 -0.543164 -0.0837542 0 0 0
-0.473516 -0.418964 0.389636 0 0 0
0.116191 0.514632 2.83695 0 0 0
0.0347702 -1.20496 0.703839 0 0 0
-0.169383 -0.070749 -0.984145 0 0 0
0.242045 -0.266554 24.5723 0 0 0
0.0922274 0.0407683 0.76518 0 0 0
0.295169 0.481111 -0.752819 0 0 0
-1.20486 -0.194215 0.135762 0 0 0
-0.0772938 0.0154564 2.7673 0 0 0
-0.0275032 0.0657543 -0.0251188 0 0 0
-0.292567 0.131066 0.218835 0 0 0
0.0779289 0.982531 -0.0306273 0 0 0
-0.227431 0.0868354 0.602368 0 0 0
0.038524 0.182091 0.349509 0 0 0
0.0966366 -0.121375 5.40361 0 0 0
0.302183 0.0414786 0.998074 0 0 0
0.111638 -0.0724472 -0.294104 0 0 0
-0.17789 -0.821756 -0.0246688 0 0 0
0.292254 -0.171595 -0.8735 0 0 0
-0.0842257 0.0905336 0.525248 0 0 0
0.900141 -0.388947 0.531858 0 0 0
-0.351807 -0.0154839 0.515249 0 0 0
-0.568826 0.0836926 0.856386 0 0 0
-0.404679 0.0619506 2.81478 0 0 0
-0.379628 0.356068 6.63325 0 0 0
-0.11951 -0.326441 2.16329 0 0 0
0.410944 0.38062 0.999593 0 0 0
-0.00771562 0.509072 -0.361621 0 0 0
0.0603354 0.440324 0.106536 0 0 0
0.637997 -0.165709 0.0449158 0 0 0
0.284714 -0.460762 -0.194543 0 0 0
0.112922 -0.232897 5.38442 0 0 0
-0.367988 0.121563 2.78339 0 0 0
-0.276529 -0.269013 -0.881453 0 0 0
0.0699231 0.579377 0.826026 0 0 0
0.00855272 -0.270349 -0.768152 0 0 0
0.446205 -0.0260374 0.139098 0 0 0
-0.257751 0.190497 5.39713 0 0 0
-0.284525 -0.405413 -0.131215 0 0 0
0.00105446 -0.408805 2.16524 0 0 0
-0.515345 -0.00623035 2.83511 0 0 0
-0.262669 -0.034273 24.6318 0 0 0
-0.284816 -0.594892 0.496628 0 0 0
0.221923 0.129274 -31.4198 0 0 0
-0.140148 -0.166664 0.237489 0 0 0
-0.147694 0.23975 0.00863027 0 0 0
0.777392 0.160461 0.195775 0 0 0
0.100214 -0.0346596 0.806262 0 0 0
-0.00334065 -0.229811 5.3965 0 0 0
-0.0292814 0.3753 0.848789 0 0 0
0.202305 0.186693 6.62626 0 0 0
-0.0892635 -0.490109 0.592446 0 0 0
-0.660956 -0.728284 0.520139 0 0 0
-0.423178 0.0612812 -0.0566814 0 0 0
0.0355126 0.216797 23.9624 0 0 0
-0.155299 0.175311 0.964971 0 0 0
-0.0907452 -0.0680272 2.78467 0 0 0
-0.253789 -0.147925 0.679841 0 0 0
0.423333 0.114392 -0.907782 0 0 0
-0.0705065 0.191887 0.762741 0 0 0
-0.0818016 -0.0555696 0.707163 0 0 0
-0.668481 -0.270474 -0.0686045 0 0 0
0.438766 0.0433163 0.518267 0 0 0
-0.0266415 -1.25146 5.36313 0 0 0
-0.114708 0.464605 2.17166 0 0 0
0.351624 0.293225 0.647765 0 0 0
-0.401178 0.120751 -0.232802 0 0 0
1.13377 -0.0330225 5.98135 0 0 0
-0.0195215 0.0944823 5.39965 0 0 0
-0.227587 0.462587 -0.023576 0 0 0
-0.189759 0.268288 -0.0316799 0 0 0
0.0886293 0.610114 0.941418 0 0 0
0.0407948 -0.468902 0.515126 0 0 0
-0.0316968 -0.162973 -0.250834 0 0 0
-0.808956 0.145996 2.83242 0 0 0
0.194242 -0.0762118 2.79514 0 0 0
-0.187311 -0.285145 -0.998638 0 0 0
0.302604 -0.263743 -0.831569 0 0 0
0.0562323 0.050491 2.2045 0 0 0
-0.70086 0.12666 0.377491 0 0 0
0.0640966 -0.260496 6.00451 0 0 0
-0.541088 0.161234 0.858259 0 0 0
0.0749183 -0.0684472 0.78619 0 0 0
-0.244222 -0.539617 -0.722981 0 0 0
-0.23259 0.484254 -0.627295 0 0 0
-0.132113 0.0864325 0.528344 0 0 0
0.282761 -0.409093 0.30431 0 0 0
0.217449 0.109387 0.589484 0 0 0
0.0223934 -0.283187 -0.628314 0 0 0
-0.683499 -0.113835 0.169944 0 0 0
-0.458567 0.451509 2.78897 0 0 0
0.356715 -0.145738 -0.214739 0 0 0
0.689827 -0.152754 0.216152 0 0 0
-0.325036 0.459 -0.856174 0 0 0
0.730786 0.070279 -0.710159 0 0 0
0.13395 -0.570282 0.133031 0 0 0
-0.0419932 -0.400191 0.874458 0 0 0
0.424329 0.25311 -0.300232 0 0 0
-0.348839 -0.560428 -0.331371 0 0 0
-0.0874567 -0.412376 0.23573 0 0 0
-0.660283 -0.490535 37.1819 0 0 0
0.247492 0.212573 6.58177 0 0 0
0.101268 0.189502 -0.136668 0 0 0
0.030378 -0.251673 2.17787 0 0 0
0.15775 0.173168 2.18973 0 0 0
-0.301137 -0.278118 -1.79815 0 0 0
0.296914 0.0512044 -0.99488 0 0 0
-0.599741 0.20603 5.38191 0 0 0
1.12552 0.856572 -1.7612 0 0 0
0.321836 0.661086 0.215503 0 0 0
0.743759 -0.272225 -0.781122 0 0 0
0.336956 -0.176721 6.6374 0 0 0
0.105046 -0.590539 -0.589861 0 0 0
-0.45526 0.701648 0.586374 0 0 0
-0.114449 -0.137167 0.968731 0 0 0
-0.0562828 0.0245724 0.271685 0 0 0
-0.502531 0.398954 -0.595506 0 0 0
0.668401 -0.00508479 -0.618049 0 0 0
-0.695 0.222531 6.62839 0 0 0
-0.289846 0.00607659 0.998597 0 0 0
0.0963318 0.131129 0.275109 0 0 0
-0.330534 0.600592 0.647378 0 0 0
-0.112401 0.475283 -0.791102 0 0 0
0.0484835 0.36582 0.819461 0 0 0
-0.708444 0.0145116 -0.0289623 0 0 0
0.149746 -0.846237 6.58939 0 0 0
0.911628 -0.635833 0.23964 0 0 0
-0.71501 0.231321 0.813382 0 0 0
0.279229 -0.495463 0.922087 0 0 0
-0.336062 -0.0195305 5.38848 0 0 0
-0.367139 -0.332741 0.333437 0 0 0
-0.373431 -0.214206 -0.771357 0 0 0
0.0305151 0.195475 -0.311806 0 0 0
0.763368 -0.57083 0.344457 0 0 0
-0.181437 -0.0600906 5.42691 0 0 0
-0.0644982 -0.0681727 0.511289 0 0 0
-0.408395 -0.150685 -0.752082 0 0 0
-0.529534 -1.03358 0.541128 0 0 0
-0.576384 -0.221672 2.20625 0 0 0
-0.335563 -0.0884394 -0.790274 0 0 0
0.0688802 0.382263 -0.701218 0 0 0
-0.364517 0.502969 24.0393 0 0 0
0.400985 -0.347796 0.955375 0 0 0
-0.0612472 -0.122271 5.96532 0 0 0
0.569991 0.75245 -0.191808 0 0 0
0.0498109 0.0101293 0.661664 0 0 0
-0.0996712 -0.231119 0.15871 0 0 0
0.285489 -0.56334 -0.012534 0 0 0
0.475799 0.334638 0.192817 0 0 0
0.792666 0.619523 5.41647 0 0 0
-0.173469 -0.0549051 5.41284 0 0 0
-0.525281 0.511776 0.5491 0 0 0
-0.0272442 -0.631101 -0.708598 0 0 0
0.167141 0.0670937 -0.230472 0 0 0
0.154183 0.00518243 0.622262 0 0 0
0.329332 0.538005 -0.774329 0 0 0
-0.174244 -0.169683 5.40213 0 0 0
-0.000384307 -0.0175852 -0.885378 0 0 0
0.411569 -0.440175 5.41759 0 0 0
-0.125825 -0.502128 -0.0691512 0 0 0
-0.102456 -0.409505 0.0334243 0 0 0
-0.00199664 0.199078 0.347838 0 0 0
0.26571 0.502724 -0.33068 0 0 0
-0.204646 0.0645243 0.334897 0 0 0
-0.357017 -0.0365351 0.227342 0 0 0
-0.063979 0.00522619 6.01204 0 0 0
-0.410959 -0.0783144 0.379234 0 0 0
0.263396 0.695279 -0.4105 0 0 0
0.152647 -0.0561263 0.735423 0 0 0
0.274901 0.108125 0.362398 0 0 0
0.212598 -0.469677 -0.396282 0 0 0
-0.00292405 -0.0668877 0.518196 0 0 0
0.941302 -0.0279836 0.387756 0 0 0
-0.186432 0.0379929 -0.14452 0 0 0
0.209392 0.35096 0.81943 0 0 0
-0.492077 0.34996 -0.719435 0 0 0
0.431559 0.352938 -0.463421 0 0 0
0.0213569 -0.123057 0.42001 0 0 0
-0.16476 0.302818 0.0624637 0 0 0
-0.107434 0.551138 5.37702 0 0 0
0.380901 0.077046 0.119044 0 0 0
-0.146547 0.0948499 0.930477 0 0 0
-0.0776077 -0.179128 -1.76761 0 0 0
-0.335764 0.155685 5.37053 0 0 0
0.511786 -0.0921641 6.03935 0 0 0
0.288647 -0.517968 -0.48028 0 0 0
-0.396171 0.0846661 5.40345 0 0 0
0.210151 0.0766739 0.931315 0 0 0
-0.262531 -0.155611 -0.478452 0 0 0
-0.227687 -0.395218 35.5355 0 0 0
-0.347965 -0.55674 -0.852684 0 0 0
-0.417542 0.0890344 2.21821 0 0 0
0.555443 -0.269494 0.739551 0 0 0
-0.290353 -0.301585 0.103409 0 0 0
0.48803 -0.0638396 5.39654 0 0 0
0.331022 -0.298356 0.857559 0 0 0
0.188615 0.0744472 -0.828108 0 0 0
-0.0440955 -0.247558 -0.410519 0 0 0
0.0180954 -0.182992 0.212159 0 0 0
0.284141 -0.305363 0.967303 0 0 0
0.0288885 0.200697 0.553092 0 0 0
-0.296132 -0.520669 0.139573 0 0 0
-0.537927 0.0413672 2.23321 0 0 0
-0.0860551 -0.218258 0.435759 0 0 0
-0.0833703 0.196342 -0.0894721 0 0 0
-0.172189 0.240721 0.0534693 0 0 0
-0.166281 0.000802059 0.506061 0 0 0
-0.0104264 -0.612684 0.0618314 0 0 0
-0.0315376 -0.177008 5.40125 0 0 0
0.0253902 -0.441675 0.649659 0 0 0
-0.185099 0.0229533 0.321586 0 0 0
-0.23134 0.335029 0.228942 0 0 0
-0.239817 0.418095 24.6029 0 0 0
-0.511326 -0.166598 5.38005 0 0 0
-0.108749 0.182558 0.875383 0 0 0
0.427378 -0.492063 0.125198 0 0 0
-0.230697 0.152809 2.82272 0 0 0
-0.123486 -0.224531 0.742508 0 0 0
0.683035 0.371841 -0.034134 0 0 0
0.264529 -0.550847 0.12317 0 0 0
0.0791287 -0.426914 -0.46796 0 0 0
-0.443845 -0.591898 -0.226265 0 0 0
-0.0564501 -0.384326 0.97557 0 0 0
0.45608 0.575308 6.0153 0 0 0
0.269205 0.0425781 -0.373792 0 0 0
0.24534 -0.00258892 -0.97997 0 0 0
0.0449603 0.0629404 0.27156 0 0 0
-0.104418 -0.164881 5.41348 0 0 0
0.00378753 -0.0271059 -0.862006 0 0 0
0.0652759 0.141868 0.477999 0 0 0
0.604081 -0.0159554 -0.492004 0 0 0
-0.323208 -0.113014 2.8308 0 0 0
1.19103 -0.289812 0.129956 0 0 0
0.0118472 -0.404728 -0.216449 0 0 0
0.0886676 0.0230812 0.300495 0 0 0
-0.236659 -0.210643 -0.132533 0 0 0
-0.300262 -0.371004 -0.997145 0 0 0
0.0810605 0.445469 0.934703 0 0 0
0.012167 -0.439566 0.843319 0 0 0
0.0344584 0.0407242 0.105297 0 0 0
-0.448457 0.273606 -0.323458 0 0 0
-0.363007 -0.257335 6.61458 0 0 0
0.107493 0.438561 0.167177 0 0 0
-0.363436 -0.453655 -0.836715 0 0 0
0.596983 -0.843559 -1.76418 0 0 0
0.0305855 0.337851 -0.948466 0 0 0
-0.164188 0.179528 0.240987 0 0 0
0.0766816 0.0863185 -0.0937484 0 0 0
0.0395639 -0.288664 -0.439864 0 0 0
0.412128 0.105686 -0.913678 0 0 0
0.109636 0.406438 -1.82176 0 0 0
-0.0372369 0.511226 6.02485 0 0 0
-0.149633 -0.125256 -0.439331 0 0 0
-0.208796 -0.108236 0.64474 0 0 0
-0.320716 0.305357 5.9943 0 0 0
-0.019274 -0.137723 0.239331 0 0 0
-0.587307 0.348416 0.564253 0 0 0
0.497486 -0.0578962 4.07957 0 0 0
-0.186272 -0.128278 2.77239 0 0 0
-0.559974 -0.163664 -0.441232 0 0 0
0.173627 0.267624 0.882266 0 0 0
-0.915164 0.220381 5.99193 0 0 0
0.491335 0.0447095 2.8235 0 0 0
0.593761 0.00338361 2.2374 0 0 0
0.343088 0.0351792 -0.650991 0 0 0
-0.00380234 -0.234777 -0.894891 0 0 0
-0.233365 -0.0740441 -0.901331 0 0 0
0.31575 0.072686 5.97037 0 0 0
-0.12899 -0.0919567 -0.511275 0 0 0
0.292812 -0.0818916 0.939849 0 0 0
-0.0664758 0.119625 -0.15463 0 0 0
-0.0437905 -0.236251 5.96155 0 0 0
0.0825044 0.240284 -0.490458 0 0 0
-0.284703 0.342499 -0.0916745 0 0 0
-0.332912 -0.0415341 0.400614 0 0 0
0.134921 -0.314292 0.511656 0 0 0
-0.656965 -0.279747 0.947663 0 0 0
-0.166205 0.138617 -0.0536026 0 0 0
-0.231141 0.0394193 0.161845 0 0 0
-0.228834 -0.119375 0.248127 0 0 0
-0.30359 -0.335615 5.96621 0 0 0
-0.019285 -0.232564 -0.419381 0 0 0
-0.566722 0.105074 0.706634 0 0 0
-0.0557526 0.244096 -0.967198 0 0 0
-0.780259 0.165603 0.043511 0 0 0
-0.223408 -0.0418192 2.2293 0 0 0
0.457049 0.281457 -0.252872 0 0 0
0.30203 -0.39645 -0.673222 0 0 0
-0.331612 -0.162228 0.620371 0 0 0
0.0300898 -0.281449 2.8045 0 0 0
-0.560406 -0.083276 -0.673094 0 0 0
0.427058 -0.285752 0.18229 0 0 0
0.158814 -0.0840692 -0.933035 0 0 0
-0.260629 0.185821 -0.970432 0 0 0
0.673254 0.410658 0.334481 0 0 0
0.0912179 0.201273 -0.109812 0 0 0
0.69127 -0.261934 0.406219 0 0 0
-0.0970184 -0.170376 0.595608 0 0 0
0.151034 0.342838 0.782123 0 0 0
0.376954 0.545132 0.906601 0 0 0
0.162823 -0.35865 0.963375 0 0 0
-0.359229 0.0640107 -0.582945 0 0 0
-0.152981 -0.16021 2.77879 0 0 0
0.2505 -0.038696 -0.715975 0 0 0
-0.921291 0.0458288 0.256983 0 0 0
-0.65663 -0.82642 0.376292 0 0 0
-0.00492109 0.381878 -0.318963 0 0 0
0.387275 -0.789335 0.734107 0 0 0
-0.166546 -0.380138 2.2181 0 0 0
-0.00214247 -0.339472 5.98248 0 0 0
0.221841 -0.0506554 0.32757 0 0 0
-0.493047 -0.201182 0.693038 0 0 0
0.0312196 -0.266622 -0.89044 0 0 0
-0.0297283 0.200825 0.987107 0 0 0
-0.480573 -0.362797 0.040914 0 0 0
-0.209297 -0.117913 2.79351 0 0 0
-0.072041 0.221771 0.209646 0 0 0
-0.143832 0.151032 0.128553 0 0 0
-0.0645599 -0.0451909 -0.222385 0 0 0
-0.0271908 0.17047 0.153136 0 0 0
0.145146 0.053418 6.00723 0 0 0
0.675627 -0.350782 0.485479 0 0 0
-0.0634905 0.0200323 6.00614 0 0 0
0.159592 -0.0374425 -0.514174 0 0 0
0.143056 -0.0467629 2.16254 0 0 0
-0.115439 0.079983 -0.546685 0 0 0
-0.0416532 0.0379968 0.299757 0 0 0
-0.00260459 -0.278914 -0.511215 0 0 0
-0.117027 -0.648036 -0.545986 0 0 0
0.0700028 0.431353 -0.0731737 0 0 0
0.0351365 0.291389 0.313015 0 0 0
-0.249489 -0.145548 -0.548436 0 0 0
0.0782 0.162469 0.00824226 0 0 0
0.585118 0.150521 0.0392253 0 0 0
-0.448321 -0.515276 0.484993 0 0 0
-0.0649788 -0.304914 -0.59239 0 0 0
0.120033 0.376992 6.03659 0 0 0
-0.148899 0.602426 0.475795 0 0 0
0.169167 0.169985 6.60089 0 0 0
-0.199003 0.0783201 -0.367954 0 0 0
-0.476358 0.186649 0.259655 0 0 0
-0.50781 0.0968887 0.160234 0 0 0
-0.142245 -0.21331 0.822581 0 0 0
-0.0998417 -0.267084 -0.87557 0 0 0
-0.255886 -0.860275 -0.266795 0 0 0
-0.156999 0.676623 -1.77364 0 0 0
0.366163 -0.162492 -0.434312 0 0 0
-0.210001 0.0998267 -0.391313 0 0 0
0.0101167 0.278757 0.473911 0 0 0
0.104966 -1.01286 2.20852 0 0 0
0.0838338 -0.0265471 -0.699086 0 0 0
0.50212 -0.290885 2.77485 0 0 0
-0.37748 0.347894 0.320141 0 0 0
-0.049971 0.445832 -0.649639 0 0 0
-0.0261776 0.223768 24.0079 0 0 0
-0.0868361 0.142463 -0.319991 0 0 0
0.094126 -0.27851 0.0536392 0 0 0
0.350281 0.534808 -0.53874 0 0 0
0.139273 0.12895 0.0518359 0 0 0
-0.0497268 0.0629731 -0.674481 0 0 0
0.0733227 0.12702 -0.0814756 0 0 0
-0.329445 -0.333276 -0.800288 0 0 0
0.274654 0.0711117 0.264756 0 0 0
0.455315 0.436587 5.99123 0 0 0
-0.389038 -0.368742 -0.963302 0 0 0
-0.156773 0.210649 0.476178 0 0 0
0.47596 0.25053 -0.261026 0 0 0
0.0994625 -0.463356 -0.90495 0 0 0
0.599352 0.195358 -0.244858 0 0 0
-0.477909 0.0300101 0.15942 0 0 0
-0.862228 0.193172 23.9712 0 0 0
-0.0149295 -0.538383 0.274175 0 0 0
0.165375 -0.368433 0.715524 0 0 0
-0.147301 -0.306817 0.4472 0 0 0
-0.139544 0.666034 -0.0400473 0 0 0
0.163443 -0.162676 0.621249 0 0 0
-0.184523 0.0409449 -1.80096 0 0 0
-0.0655817 -0.291811 0.204978 0 0 0
-0.0310549 -0.122841 -0.258582 0 0 0
-0.204136 -0.147734 -0.524819 0 0 0
0.134947 0.0619272 2.20645 0 0 0
0.457721 0.0300196 -0.01629 0 0 0
-0.537433 -0.261039 -0.818924 0 0 0
-0.232563 0.0992592 0.644815 0 0 0
-0.249832 -0.109709 -0.116548 0 0 0
-0.793471 -0.207517 0.838609 0 0 0
0.818455 -0.380214 -0.216707 0 0 0
0.2187 0.104799 0.875683 0 0 0
0.0185483 0.0406571 -0.990028 0 0 0
-0.03412 -0.185486 0.134832 0 0 0
0.860991 -0.803775 -0.787552 0 0 0
0.097355 0.125782 0.954415 0 0 0
0.485279 -0.144908 0.716163 0 0 0
0.739996 -0.125226 -0.701487 0 0 0
-0.179644 0.577641 37.1606 0 0 0
0.00147347 -0.200174 2.81628 0 0 0
-0.175076 0.362881 -0.98486 0 0 0
-0.284334 -0.0721649 0.976681 0 0 0
-0.0897775 0.0232115 0.144195 0 0 0
-0.529599 -0.782992 -0.0611401 0 0 0
0.0309363 0.237525 35.0816 0 0 0
0.140391 0.187073 -0.74877 0 0 0
0.0847332 -0.194297 -0.604364 0 0 0
-0.162049 0.315745 2.80133 0 0 0
-0.780068 0.217323 -0.1496 0 0 0
-0.00820212 0.197393 -0.22904 0 0 0
-0.0605295 0.386327 0.177123 0 0 0
0.296922 0.217906 -0.0108012 0 0 0
0.235359 0.19257 0.231164 0 0 0
0.129326 0.360056 0.997615 0 0 0
-0.0995997 -0.319298 -0.508975 0 0 0
0.275793 -0.205431 0.505753 0 0 0
0.00960515 0.206579 -0.939466 0 0 0
-0.540259 0.0802961 0.378588 0 0 0
0.194386 0.00728486 0.692713 0 0 0
-0.0841245 -0.577608 -0.916709 0 0 0
0.335155 0.277661 2.20732 0 0 0
0.242406 -0.211569 -0.139012 0 0 0
0.142216 0.541402 5.97025 0 0 0
-0.779045 0.719282 -0.721663 0 0 0
0.0163569 -0.524672 -0.844421 0 0 0
-0.141168 -0.233205 -0.543831 0 0 0
0.0935638 -0.103043 -0.914406 0 0 0
0.271725 -0.378434 6.01278 0 0 0
-0.599819 0.162795 -0.807676 0 0 0
-0.105984 0.069493 0.10081 0 0 0
0.688387 -0.0425646 5.96576 0 0 0
-0.373493 -0.343415 0.789416 0 0 0
0.547909 -0.574444 -0.795781 0 0 0
0.246523 -0.492006 0.43239 0 0 0
0.0348704 -0.443309 0.414913 0 0 0
0.350354 0.336306 2.23497 0 0 0
0.671346 -0.118106 -0.616716 0 0 0
0.161808 0.124195 0.176231 0 0 0
-0.0406229 -0.140582 -0.280317 0 0 0
0.128122 -0.206133 0.896639 0 0 0
-0.536141 -0.271981 0.859789 0 0 0
0.198392 -0.317365 5.42368 0 0 0
-0.466412 0.138951 0.649664 0 0 0
-0.330499 0.00984254 -0.131493 0 0 0
0.218715 -0.214329 6.60228 0 0 0
-0.588763 0.214056 -0.168591 0 0 0
-0.411271 0.342636 -0.115524 0 0 0
-0.0678217 -0.114708 0.252435 0 0 0
0.585647 0.201092 -0.716717 0 0 0
-0.361341 0.262667 0.107661 0 0 0
-0.170876 0.104665 -0.176238 0 0 0
0.542931 0.0674654 0.987754 0 0 0
0.106282 0.559428 0.193163 0 0 0
-0.325185 -0.0580193 0.661971 0 0 0
0.1515 -0.279482 5.42172 0 0 0
0.442788 0.254102 -0.438273 0 0 0
-0.265 -0.00395179 -0.114383 0 0 0
-0.256235 0.0580812 0.856084 0 0 0
-0.166681 0.02793 -0.184953 0 0 0
0.202269 0.106315 -0.241618 0 0 0
-0.0639265 -0.366513 -0.625624 0 0 0
-0.594917 0.604789 0.880257 0 0 0
0.291232 0.220909 0.107802 0 0 0
0.0767948 -0.0649424 -0.854912 0 0 0
0.217489 0.103528 0.520047 0 0 0
-0.521098 0.0736795 0.440236 0 0 0
-0.426898 -0.0606 -1.77249 0 0 0
-0.652376 0.344266 2.19262 0 0 0
0.443045 -0.0938055 -0.883044 0 0 0
0.543688 -0.165448 -0.0626393 0 0 0
-0.0910566 -0.597091 25.1646 0 0 0
0.167113 0.13001 -0.0846429 0 0 0
0.38394 0.11233 -0.445844 0 0 0
0.153941 -0.309429 -0.93449 0 0 0
0.122481 -0.110106 -0.559613 0 0 0
0.362451 -0.374235 6.00426 0 0 0
-0.240459 0.703319 -0.161412 0 0 0
0.301982 -0.0823304 2.65625 0 0 0
0.117926 -0.406578 0.1741 0 0 0
0.232506 -0.0617913 0.991141 0 0 0
-0.0760737 -0.0702091 -0.258983 0 0 0
-0.188415 -0.154446 0.873396 0 0 0
-0.310608 -0.0657925 0.970915 0 0 0
-0.277006 0.0386075 5.3967 0 0 0
0.417722 0.684961 0.850049 0 0 0
-0.334863 -0.227197 -0.991454 0 0 0
-0.162665 0.36354 -0.639906 0 0 0
-0.187629 -0.249407 0.541628 0 0 0
-0.212343 0.271195 -0.439565 0 0 0
0.179669 0.141959 0.407354 0 0 0
0.487042 -0.364189 -0.391744 0 0 0
-0.465207 -0.248251 0.41677 0 0 0
-0.139591 0.535181 -0.655483 0 0 0
-1.15353 -0.291697 6.62936 0 0 0
0.107919 0.0793942 0.41286 0 0 0
-0.199728 -0.0468109 6.58947 0 0 0
0.355635 0.0632341 5.37331 0 0 0
0.557331 -0.586695 5.97904 0 0 0
0.0138213 0.469316 0.117196 0 0 0
0.501313 -0.494204 -0.340014 0 0 0
0.154399 0.448858 -0.486942 0 0 0
-0.108744 -0.00549374 0.307121 0 0 0
-0.263995 -0.317307 2.78812 0 0 0
0.0609458 0.239921 0.222078 0 0 0
-0.188254 -0.209369 6.58606 0 0 0
-0.0780903 -0.399795 -0.521974 0 0 0
-0.285819 -0.378281 -0.77556 0 0 0
0.462879 -0.148847 -0.472893 0 0 0
0.0449856 -0.248907 -0.281991 0 0 0
-0.0953481 0.145784 6.61277 0 0 0
-0.237274 0.392673 0.858396 0 0 0
0.0940608 0.437633 2.83311 0 0 0
-0.347676 -0.681016 0.772831 0 0 0
-0.602078 -0.217241 0.496539 0 0 0
0.214509 -0.966603 -0.273435 0 0 0
-0.105196 0.532181 -0.670284 0 0 0
0.367717 -0.265527 -0.544553 0 0 0
0.0832562 -0.65826 -0.837182 0 0 0
-0.173105 0.0527515 0.909961 0 0 0
0.037409 0.259155 -0.666864 0 0 0
0.128487 0.213036 5.97687 0 0 0
-0.676847 0.666728 25.2197 0 0 0
0.195414 0.49671 0.309656 0 0 0
0.230529 -0.190982 -0.455005 0 0 0
0.20217 0.0522008 -0.144765 0 0 0
0.514764 -0.342614 -0.1039 0 0 0
-0.130139 0.297694 0.603083 0 0 0
0.040702 0.108503 -0.588788 0 0 0
0.0109464 0.114112 2.83123 0 0 0
0.0806606 -0.0908273 -0.476763 0 0 0
0.155881 -0.36575 0.684785 0 0 0
-0.0462337 -0.133303 0.404666 0 0 0
0.220075 -0.222995 0.916727 0 0 0
0.0983727 -0.0292405 24.0086 0 0 0
0.124806 -0.0393908 5.36631 0 0 0
-0.19231 -0.268009 0.0431207 0 0 0
-0.162361 0.275462 -0.806395 0 0 0
-0.0727736 0.604683 -0.085513 0 0 0
0.294153 -0.0187742 6.62975 0 0 0
0.500733 -0.454904 -0.376757 0 0 0
0.410232 0.00699441 -0.416095 0 0 0
-0.618155 0.194132 -0.0189377 0 0 0
-0.0136272 0.259945 -0.515019 0 0 0
-0.721497 -0.445822 -0.0126302 0 0 0
0.17165 0.484755 2.82916 0 0 0
-0.243656 0.680068 37.1857 0 0 0
0.179791 -0.134584 0.362519 0 0 0
-0.307556 -0.0464241 6.03931 0 0 0
-0.129366 0.104752 0.726381 0 0 0
-0.65465 0.576635 -0.411106 0 0 0
-0.541784 -0.198025 -0.285035 0 0 0
-0.466917 0.419154 0.199752 0 0 0
-0.0730303 -0.421108 -0.0298037 0 0 0
-0.451214 -0.0190431 0.17053 0 0 0
-0.278452 -0.0502175 -0.394735 0 0 0
0.238502 -0.272589 0.157401 0 0 0
-0.0710007 -0.161154 0.368444 0 0 0
0.434237 -0.473182 0.762315 0 0 0
-0.398164 0.655347 -0.164876 0 0 0
0.111057 -0.0683421 0.803084 0 0 0
0.217741 0.0269276 -0.771139 0 0 0
0.236212 -0.202432 -0.396673 0 0 0
-0.32023 -0.330404 0.0110788 0 0 0
0.327054 0.448376 6.58172 0 0 0
-0.249206 0.433818 6.56734 0 0 0
-0.258996 -0.167748 -0.547312 0 0 0
0.147853 -0.632473 24.0149 0 0 0
-0.0986192 -0.142609 0.9517 0 0 0
0.127791 -0.155613 0.749052 0 0 0
0.298971 -0.30075 -0.650122 0 0 0
-0.228941 0.328665 -0.427825 0 0 0
0.322376 0.114274 -0.911359 0 0 0
0.0594769 -0.2786 -0.742928 0 0 0
-0.559874 0.0325398 -0.314024 0 0 0
0.235619 0.240267 0.267357 0 0 0
0.323077 0.706898 24.0303 0 0 0
-0.145818 -0.0801972 2.22058 0 0 0
0.103333 -0.0419762 2.23359 0 0 0
-0.179285 -0.046324 -0.0320053 0 0 0
-0.127317 0.073949 2.17505 0 0 0
-0.340839 0.131156 6.62757 0 0 0
-0.226096 -0.348022 0.608161 0 0 0
0.329617 0.150768 -0.117678 0 0 0
0.150102 1.2818 -0.774415 0 0 0
-0.314557 -0.269877 -0.0976201 0 0 0
-0.0163347 0.0246468 0.855901 0 0 0
0.192705 0.0314701 6.01247 0 0 0
0.682756 0.655332 0.992052 0 0 0
-0.0852315 -1.09201 -0.922959 0 0 0
-0.122318 0.00012107 0.786345 0 0 0
0.191561 0.0904717 -0.405634 0 0 0
-0.00112346 -0.268453 6.03787 0 0 0
-0.0547939 -0.0995653 0.658921 0 0 0
0.843259 -0.645689 0.328298 0 0 0
-0.150975 -0.204196 0.467467 0 0 0
-0.51395 -0.0164862 -0.60274 0 0 0
-0.100474 -0.299156 0.419537 0 0 0
0.380782 0.336541 0.675683 0 0 0
-0.541122 -0.548209 0.827489 0 0 0
-0.0866228 0.534044 2.83087 0 0 0
0.252488 0.221717 0.116296 0 0 0
-0.442471 -0.345591 -0.494937 0 0 0
0.852335 0.112596 5.41012 0 0 0
0.18379 -0.0343886 0.748595 0 0 0
0.382051 -0.754603 0.452515 0 0 0
0.699661 0.428044 0.491043 0 0 0
-0.12279 -0.2924 -0.28857 0 0 0
0.39239 0.167592 -0.908671 0 0 0
0.366482 -0.532561 -0.630899 0 0 0
0.0208027 -0.316954 -0.99421 0 0 0
0.0830871 0.211645 0.904496 0 0 0
-0.158185 0.252556 -0.560318 0 0 0
-0.484638 -0.649367 -0.394912 0 0 0
-0.0949243 -0.00888551 2.23292 0 0 0
0.141752 -0.0422996 -1.7748 0 0 0
-0.163175 0.164432 0.253407 0 0 0
0.371535 0.0531335 -0.200649 0 0 0
0.416072 -0.226052 0.271828 0 0 0
0.203933 -0.249868 -0.862717 0 0 0
0.448246 0.0891074 -0.369483 0 0 0
0.0572254 -0.306589 0.724189 0 0 0
0.0334145 -0.265681 0.210481 0 0 0
-0.838221 -0.334001 -0.718239 0 0 0
0.170958 0.473743 -0.654984 0 0 0
-0.0496259 -0.0173481 -0.607873 0 0 0
0.00812551 0.109921 -0.293577 0 0 0
0.654047 0.151717 0.459105 0 0 0
-0.269891 -0.532458 -0.302929 0 0 0
-0.0982617 -0.469639 0.61582 0 0 0
0.345771 -0.367464 11.6174 0 0 0
0.217306 -0.594681 0.206451 0 0 0
0.328445 -0.113351 -0.840891 0 0 0
0.244976 0.398836 0.786194 0 0 0
0.136881 0.182114 -0.617476 0 0 0
-0.364688 -0.324119 0.725197 0 0 0
0.285666 0.22143 -0.103634 0 0 0
-0.0441031 -0.298608 6.63425 0 0 0
0.0520904 -0.067831 0.875318 0 0 0
-0.299801 -0.717534 0.266045 0 0 0
-0.250458 0.0123035 -0.169333 0 0 0
0.0539462 -0.310094 -0.260248 0 0 0
-0.0448874 0.915722 -0.100847 0 0 0
0.336309 -0.101458 24.6374 0 0 0
-0.656645 0.1112 2.21475 0 0 0
0.142706 -0.119332 0.21062 0 0 0
-0.172743 0.65538 2.82838 0 0 0
-0.196316 0.0418254 -0.731304 0 0 0
-0.250031 -0.288429 0.154078 0 0 0
0.250352 -0.159212 6.01746 0 0 0
0.91863 -0.084575 5.98708 0 0 0
0.0291221 -0.644898 0.609764 0 0 0
-0.00158977 0.412146 5.97472 0 0 0
-0.124355 -0.0101359 -0.915378 0 0 0
0.18315 -0.0528711 6.03401 0 0 0
-0.262047 0.335568 -0.429673 0 0 0
-0.779007 -0.390336 0.543419 0 0 0
0.0970111 0.361869 -0.523143 0 0 0
-0.0628724 -0.550768 -0.475799 0 0 0
1.00002 -0.340101 2.1985 0 0 0
-0.0297765 -0.0486454 -0.231557 0 0 0
-0.5578 0.268416 2.539 0 0 0
0.20141 -0.142089 -0.852207 0 0 0
0.0232984 -0.173821 2.80561 0 0 0
0.797022 -0.17976 6.02842 0 0 0
0.293986 -0.172544 6.0125 0 0 0
0.137454 0.640358 -0.11108 0 0 0
-0.237926 -0.146008 0.217019 0 0 0
-0.315235 0.130842 2.79569 0 0 0
-0.0634758 -0.103514 0.617545 0 0 0
0.28558 -0.169696 -0.32857 0 0 0
-0.599144 0.652367 -0.348633 0 0 0
0.381231 1.0505 0.59809 0 0 0
-0.00926255 -0.184356 -0.468697 0 0 0
0.492326 -0.0163772 -0.93066 0 0 0
-0.318835 -0.273168 2.18583 0 0 0
-0.232061 0.127844 2.7634 0 0 0
0.100768 -0.842376 -0.880136 0 0 0
0.304464 0.119945 -0.699035 0 0 0
0.170986 -0.210363 0.421256 0 0 0
0.165808 0.170865 -0.758475 0 0 0
0.0679268 -0.102368 -0.350017 0 0 0
0.612512 0.296077 0.151021 0 0 0
0.0671756 -0.13707 -0.241304 0 0 0
0.180302 0.909854 0.578568 0 0 0
-1.17695 0.235633 0.045827 0 0 0
-0.0198625 0.164759 0.122222 0 0 0
0.373905 -0.657686 5.42968 0 0 0
0.0822354 0.0200713 2.76594 0 0 0
-0.39527 0.229086 0.525956 0 0 0
-0.295207 -0.177223 0.167367 0 0 0
-0.671919 -0.216421 -0.125005 0 0 0
-0.120971 0.186564 0.510322 0 0 0
-0.374268 -0.486665 5.41356 0 0 0
-0.0906778 0.29917 0.646376 0 0 0
0.241226 -0.167028 -0.677975 0 0 0
-0.0700459 0.597059 -0.622742 0 0 0
-0.118806 -0.177266 0.593137 0 0 0
-0.303419 -0.0660139 0.281844 0 0 0
0.335147 -0.287163 6.61 0 0 0
0.11581 -0.231729 5.39861 0 0 0
-0.364135 -0.489833 0.179269 0 0 0
0.202669 -0.701038 -0.514479 0 0 0
0.41288 0.269319 -0.884377 0 0 0
-0.0658509 0.132406 -0.228399 0 0 0
0.22996 0.240238 0.830924 0 0 0
-0.0414524 -0.0432679 0.0953039 0 0 0
-0.0494393 -0.0602105 0.916108 0 0 0
0.754784 0.265142 0.751654 0 0 0
0.147409 0.69513 -0.899207 0 0 0
-0.56892 0.119851 6.62086 0 0 0
-0.00787112 -0.109042 2.17118 0 0 0
-0.697467 0.186413 -0.919441 0 0 0
-0.0147733 -0.124601 0.736075 0 0 0
0.775166 0.0344715 0.825093 0 0 0
0.0202482 0.133284 -0.616639 0 0 0
-0.591015 -0.216678 0.758201 0 0 0
0.0932439 -0.364464 -0.884214 0 0 0
-0.258355 0.173357 -0.770319 0 0 0
-0.292297 0.425203 0.00516643 0 0 0
0.245702 0.305488 5.98124 0 0 0
-0.145749 -0.219349 0.570992 0 0 0
0.536909 -0.107543 -0.442708 0 0 0
-0.0352929 0.407753 -0.615532 0 0 0
0.276364 -0.110304 -0.63914 0 0 0
0.167085 0.207842 -0.617097 0 0 0
0.262554 0.157049 -0.967166 0 0 0
-0.637254 -0.299171 -0.535453 0 0 0
0.764345 0.0244255 -0.166122 0 0 0
-0.0048645 -0.130602 2.78985 0 0 0
-0.145426 -0.485732 0.225018 0 0 0
0.218321 0.0737138 -0.851531 0 0 0
0.428269 -0.224796 0.468475 0 0 0
0.220795 -0.618578 2.19829 0 0 0
-0.0367912 0.112833 0.845772 0 0 0
-0.492566 0.119629 -0.296529 0 0 0
-0.350445 -0.0248115 -0.184429 0 0 0
0.0858832 -0.155424 0.579442 0 0 0
0.492586 -0.118519 0.868601 0 0 0
-0.183638 -0.0191792 2.17007 0 0 0
-0.108733 -0.224509 -0.146575 0 0 0
0.477364 0.0164033 0.400152 0 0 0
0.303518 0.372233 2.16168 0 0 0
1.00075 -0.0905136 0.70196 0 0 0
-0.66335 0.000737011 0.805876 0 0 0
0.114974 -0.127967 -0.412643 0 0 0
-0.172932 -0.504142 -0.0353768 0 0 0
-0.471929 -1.01825 0.453001 0 0 0
-0.0994979 0.0125132 0.751736 0 0 0
-0.318552 -0.194087 27.9807 0 0 0
-0.0180258 -0.356425 0.92007 0 0 0
-0.25652 -0.236358 -0.444191 0 0 0
-0.227188 0.675956 0.795703 0 0 0
0.222519 0.193207 -0.0368475 0 0 0
0.167383 0.220089 0.138497 0 0 0
-0.3993 -0.224554 6.58356 0 0 0
0.225711 -0.256264 0.784017 0 0 0
-0.0268979 0.164741 -0.528055 0 0 0
0.739295 -0.478924 -0.820481 0 0 0
-0.09119 0.213066 -0.72305 0 0 0
-0.40567 -0.255935 -0.19114 0 0 0
-0.402045 0.621115 0.950441 0 0 0
-0.931959 -0.013387 17.8537 0 0 0
-0.747543 0.548289 -0.252265 0 0 0
0.169447 -0.114024 -0.765863 0 0 0
-0.0453083 0.0246728 0.794769 0 0 0
-0.461749 -0.140744 -0.595321 0 0 0
-0.12504 0.0644228 2.16329 0 0 0
-0.203889 -0.522792 0.494079 0 0 0
-0.746462 -0.202113 -0.603034 0 0 0
0.0134753 0.277797 0.361912 0 0 0
-0.299545 -0.226081 0.291502 0 0 0
-0.237623 -0.714945 2.23942 0 0 0
0.363979 -0.0252426 0.724054 0 0 0
-0.576426 0.042238 0.480998 0 0 0
-0.193023 -0.150816 -0.0499465 0 0 0
0.539322 -0.210561 0.217245 0 0 0
-0.491067 -0.606811 24.0231 0 0 0
-0.173924 -0.049472 0.562983 0 0 0
-0.216118 -0.403452 -0.329408 0 0 0
0.137715 -0.17956 0.528486 0 0 0
-0.40834 -0.0200573 0.1118 0 0 0
-0.270664 0.304791 -0.861009 0 0 0
0.485399 -0.337162 0.650257 0 0 0
0.157872 -0.0525764 0.628178 0 0 0
-0.0944307 0.634793 0.391361 0 0 0
-0.501262 0.754141 6.59626 0 0 0
0.0617264 0.0258171 -0.230781 0 0 0
0.872303 -0.324119 -0.788767 0 0 0
0.332334 -0.662853 -0.1014 0 0 0
0.304246 -0.0943745 0.476367 0 0 0
-0.161492 0.0904657 0.677053 0 0 0
0.247675 0.0756475 -0.04267 0 0 0
-1.15623 -0.673513 -0.182644 0 0 0
0.27686 0.233644 -0.416209 0 0 0
0.719842 -0.248889 -0.946245 0 0 0
-0.43823 -0.512361 0.372846 0 0 0
0.609837 -0.12974 6.01478 0 0 0
0.0251635 -0.485078 5.41379 0 0 0
-0.105406 -0.552311 -0.0983916 0 0 0
0.0632099 0.362137 -0.978953 0 0 0
0.364282 0.102194 -0.0204073 0 0 0
-0.333172 0.00838283 6.62984 0 0 0
0.0127954 0.314078 -0.672001 0 0 0
0.208345 0.229611 -0.148979 0 0 0
0.309189 0.107752 2.78501 0 0 0
-0.365447 -0.0745435 2.20827 0 0 0
0.488176 0.409922 -0.506551 0 0 0
-0.342014 0.0976928 5.4069 0 0 0
-0.72402 0.483864 0.611783 0 0 0
-0.515106 -0.351148 0.536757 0 0 0
0.298059 0.200656 0.524792 0 0 0
-0.421638 0.0265914 -0.166343 0 0 0
0.224936 -0.247485 -0.967631 0 0 0
-0.195511 0.287313 2.16887 0 0 0
0.43979 -0.184858 2.7847 0 0 0
0.0630622 -0.310995 -0.117392 0 0 0
-0.325076 0.238852 0.0524848 0 0 0
0.0436539 -0.42872 0.402 0 0 0
0.0165133 -0.330022 -0.961098 0 0 0
-0.282605 0.292422 -0.647967 0 0 0
0.256474 0.256226 5.98378 0 0 0
0.0366999 -0.224511 0.569263 0 0 0
0.379965 0.590401 -0.177299 0 0 0
0.310769 0.128715 -0.808096 0 0 0
-0.275277 -0.213545 6.03229 0 0 0
0.0394171 0.0743882 -0.611591 0 0 0
-0.720423 0.0948566 -0.695809 0 0 0
-0.10882 0.384625 -0.0706185 0 0 0
-0.364011 0.40047 27.9824 0 0 0
-0.0848853 0.408575 0.647214 0 0 0
0.477506 0.598056 0.792005 0 0 0
-0.239862 -0.138553 -0.429707 0 0 0
-0.271017 -0.309529 -0.769387 0 0 0
0.18814 -0.0520972 0.952209 0 0 0
-0.511769 0.247561 0.693022 0 0 0
0.335952 0.380768 0.722809 0 0 0
-0.0990281 -0.421451 -0.868311 0 0 0
0.566552 -0.139776 -0.222552 0 0 0
-0.236216 -0.25236 -0.442554 0 0 0
0.239791 -0.433528 0.935322 0 0 0
-0.240794 0.0707073 0.392792 0 0 0
-0.279128 0.160183 0.116428 0 0 0
-0.129765 0.0211648 -0.370827 0 0 0
-0.14115 -0.215258 -0.387282 0 0 0
0.121374 0.021531 2.80638 0 0 0
0.0375913 1.17053 2.17712 0 0 0
-0.0927598 -0.404439 0.347429 0 0 0
-0.374702 -0.146483 5.97653 0 0 0
-0.0466556 -0.186971 -0.265511 0 0 0
0.268563 -0.0311341 0.44905 0 0 0
-0.0132309 0.746213 6.57687 0 0 0
-0.0193676 -0.07215 -0.00651724 0 0 0
-0.06206 -0.107287 0.264417 0 0 0
-0.347947 0.208233 0.221614 0 0 0
0.0517962 -0.247595 2.83712 0 0 0
-0.0390398 0.209691 -0.280103 0 0 0
0.119924 0.430413 0.278362 0 0 0
-0.266101 0.0390204 -0.00721185 0 0 0
0.245981 -0.187528 -0.370333 0 0 0
-0.322454 -0.418888 -0.0709106 0 0 0
1.08152 -0.759205 0.484887 0 0 0
-0.982499 0.0893038 0.767199 0 0 0
-0.299809 0.48838 0.0587855 0 0 0
-0.297654 0.040793 6.03459 0 0 0
0.14427 -0.126474 -0.689341 0 0 0
0.285509 0.204237 0.420191 0 0 0
0.247855 -0.0737034 -0.30003 0 0 0
-0.532689 0.122469 0.255208 0 0 0
-0.129984 0.491276 -0.172648 0 0 0
0.245876 0.189866 -0.709796 0 0 0
0.0422628 -0.919395 -0.720041 0 0 0
-0.582541 -0.541045 2.16351 0 0 0
-0.500577 -0.909433 0.817606 0 0 0
0.170792 -0.367654 -0.537934 0 0 0
0.295883 -0.21287 0.646821 0 0 0
0.085665 0.322691 -0.609157 0 0 0
0.348763 0.578487 5.39331 0 0 0
-0.351866 -0.0238503 2.1979 0 0 0
0.322073 -0.269187 -0.260565 0 0 0
-0.441703 0.0743275 0.904008 0 0 0
-0.0474939 0.28357 0.800636 0 0 0
-0.0819114 -0.325104 0.348838 0 0 0
0.0983084 -0.0585097 0.974537 0 0 0
-0.279848 -0.0943374 -0.00250275 0 0 0
-0.138294 -0.233037 -0.483248 0 0 0
0.513217 -0.194937 -0.126872 0 0 0
0.253831 0.0160315 0.92309 0 0 0
-0.521171 0.343397 0.322846 0 0 0
0.00774077 -0.245135 -0.753421 0 0 0
-0.303709 -0.386187 -0.72426 0 0 0
0.334798 -0.381033 -0.629877 0 0 0
0.0902099 -0.205515 -0.211844 0 0 0
-0.160813 0.34701 -0.227307 0 0 0
-0.512293 0.126804 -0.982991 0 0 0
-0.164484 0.466242 0.694421 0 0 0
-0.193033 0.411436 0.587084 0 0 0
-0.437878 -0.192556 0.963527 0 0 0
-0.0468653 -0.0932804 0.861687 0 0 0
-0.428172 -0.103548 -0.93569 0 0 0
-0.480034 -0.163223 -0.0292318 0 0 0
0.271665 -0.237076 0.0991893 0 0 0
0.0440068 0.191076 6.63887 0 0 0
0.334515 -0.272352 2.78037 0 0 0
0.180677 0.145964 6.62734 0 0 0
0.448187 0.555526 -0.054349 0 0 0
-0.0449248 -0.236365 0.981009 0 0 0
-0.00757503 0.119687 0.96093 0 0 0
-0.222824 -0.425776 0.499476 0 0 0
0.15465 -0.28805 5.4385 0 0 0
0.0135367 0.172721 0.542712 0 0 0
-0.104769 0.29963 -0.469542 0 0 0
0.0779559 -0.187895 0.0377343 0 0 0
-0.166462 -0.189335 -0.259518 0 0 0
1.09651 -0.590309 -0.152865 0 0 0
0.388094 -0.116219 5.40178 0 0 0
0.361077 0.099388 -0.152114 0 0 0
1.20544 0.142042 6.56463 0 0 0
-0.0572789 0.18502 -0.668789 0 0 0
0.514451 -0.585303 -0.953708 0 0 0
-0.0742304 0.32738 -0.0734573 0 0 0
-0.20169 0.809648 -0.322792 0 0 0
0.0608098 -0.508413 0.270491 0 0 0
-1.01861 -0.869818 0.941508 0 0 0
0.262603 0.0434625 0.595457 0 0 0
-0.27509 -0.0325939 -0.415148 0 0 0
0.0108306 0.186917 -0.942541 0 0 0
0.138774 -0.0283839 0.088121 0 0 0
0.000116916 0.0459016 5.43195 0 0 0
-0.314678 -0.828025 0.268806 0 0 0
0.327894 -0.606566 0.901794 0 0 0
0.419231 -0.705663 5.3992 0 0 0
0.0608645 0.748398 -0.701025 0 0 0
0.259328 0.0400082 -0.376264 0 0 0
0.364264 -0.298728 -0.497009 0 0 0
-0.218791 0.386313 0.0152858 0 0 0
-0.160774 -0.317789 -0.463075 0 0 0
-0.565008 0.260853 6.57872 0 0 0
0.251363 -0.0573937 5.98791 0 0 0
1.06199 0.0272703 0.657642 0 0 0
-0.273665 -0.08026 -0.102913 0 0 0
-0.106804 0.276052 -0.827972 0 0 0
-0.289148 0.4094 0.817964 0 0 0
-0.464188 -0.26306 -0.765609 0 0 0
0.115144 0.417712 -0.925301 0 0 0
0.158065 -0.196199 -0.0460791 0 0 0
-0.207593 0.349617 0.569464 0 0 0
-0.2089 0.417873 5.96526 0 0 0
0.0823145 0.319184 0.345413 0 0 0
-0.459165 -0.536901 2.83509 0 0 0
-0.0954427 0.135139 0.827281 0 0 0
-0.0297092 0.116873 -0.153724 0 0 0
0.316367 -0.582759 0.162847 0 0 0
-0.328001 -0.242194 -0.0973793 0 0 0
0.151297 -0.416816 0.593454 0 0 0
0.107295 0.171255 -0.530998 0 0 0
0.0516113 0.014649 0.918363 0 0 0
-0.306252 -0.290436 -0.0651372 0 0 0
-0.00489099 0.313692 -0.428639 0 0 0
-0.22913 0.163396 -0.75371 0 0 0
-0.255146 0.161857 -0.057759 0 0 0
-0.35461 0.522615 2.81621 0 0 0
0.318589 0.270029 -0.781238 0 0 0
0.0189512 -0.182112 -0.854106 0 0 0
-0.0223791 0.313773 6.61621 0 0 0
0.555908 0.435914 5.40279 0 0 0
0.0630895 0.409079 -0.0524759 0 0 0
-0.101786 0.194962 -0.2549 0 0 0
0.232362 -0.276533 2.17152 0 0 0
0.182915 -0.142113 2.78932 0 0 0
-0.175977 -0.0819638 2.21773 0 0 0
0.244789 0.0743472 2.17251 0 0 0
-0.0453571 0.234302 0.605684 0 0 0
-0.376077 -0.427085 -0.336867 0 0 0
-0.286066 -0.422192 -0.669111 0 0 0
-0.69108 -0.316187 -0.857224 0 0 0
-0.1907 0.537283 0.869648 0 0 0
0.168571 0.309828 0.786036 0 0 0
-0.431503 -0.380167 0.304037 0 0 0
0.103474 -0.522017 -0.172382 0 0 0
-0.48323 -0.430972 5.3611 0 0 0
-0.136927 0.664687 -0.0318434 0 0 0
-0.127847 -0.279608 -0.0478992 0 0 0
-0.1485 0.165492 23.0078 0 0 0
-0.414232 0.0416935 0.182578 0 0 0
-0.330945 -0.184628 5.41248 0 0 0
0.456984 0.0442587 0.126276 0 0 0
-0.0403104 -0.560358 2.80167 0 0 0
0.246186 0.797088 -0.18016 0 0 0
0.396662 -0.0664575 -0.16819 0 0 0
-0.0200283 -0.363959 -0.649539 0 0 0
0.105638 0.175647 -0.166642 0 0 0
0.362312 0.307044 0.456538 0 0 0
0.547614 -0.0178027 5.38211 0 0 0
-0.0572288 0.406921 2.18387 0 0 0
-0.111718 -0.0176436 -0.581776 0 0 0
0.166156 -0.296088 -0.156347 0 0 0
-0.61599 0.00389792 0.481285 0 0 0
-0.0322195 0.216758 -0.692792 0 0 0
-0.290332 -0.0484883 -0.376043 0 0 0
0.15398 -0.395013 -0.72775 0 0 0
-0.249298 -0.0639843 -0.662984 0 0 0
-0.231282 -0.130703 2.2183 0 0 0
0.139013 -0.224019 -0.135157 0 0 0
-0.179864 0.367018 5.39086 0 0 0
0.0398782 0.0459676 0.759133 0 0 0
-0.214372 0.0383032 0.362525 0 0 0
-0.26255 -0.426754 2.20602 0 0 0
0.314268 -0.0951328 0.700443 0 0 0
0.533573 0.122843 5.41697 0 0 0
-0.431297 -0.0416987 0.15427 0 0 0
0.274231 0.569345 0.117653 0 0 0
-0.326114 0.373112 0.777378 0 0 0
-0.627656 -0.597523 0.281779 0 0 0
-0.307657 0.0689919 -1.7753 0 0 0
-0.237497 -0.804508 2.81481 0 0 0
0.128787 0.57906 -0.296919 0 0 0
-0.158641 0.351779 0.938448 0 0 0
0.158566 -0.857808 0.970433 0 0 0
-0.409601 -1.14549 0.276719 0 0 0
-0.0653189 -0.118756 0.531464 0 0 0
-0.00975954 -0.0224262 2.21659 0 0 0
-0.232929 0.132165 0.764465 0 0 0
-0.742702 0.174825 0.762685 0 0 0
-0.107404 0.260432 -0.423683 0 0 0
0.344753 -0.0501148 0.182768 0 0 0
-0.479657 -0.248203 -0.235005 0 0 0
-0.697519 -0.134527 -0.98697 0 0 0
-0.0208545 0.0691865 0.604409 0 0 0
0.780736 0.110517 0.947325 0 0 0
0.453579 0.973778 2.21547 0 0 0
0.029487 -0.440069 -0.62994 0 0 0
0.517368 0.146488 -0.146054 0 0 0
-0.0348225 -0.88135 0.407165 0 0 0
0.00361287 0.256719 0.18466 0 0 0
-0.106409 0.100305 0.900385 0 0 0
0.0375262 0.539473 0.920168 0 0 0
-0.0117627 0.814604 5.42305 0 0 0
-0.288968 -0.102566 0.461409 0 0 0
-0.3781 -0.31201 -0.543309 0 0 0
0.219987 0.145416 0.842236 0 0 0
0.215745 -0.0849178 -0.572887 0 0 0
-0.302576 -0.375774 -0.373129 0 0 0
-0.245394 1.29301 2.18426 0 0 0
0.101795 0.0522072 0.399299 0 0 0
0.274266 -0.437464 0.160233 0 0 0
-0.0823137 -0.629035 0.796913 0 0 0
-0.295847 0.204064 0.455046 0 0 0
0.054227 0.166047 -0.0833539 0 0 0
0.359926 0.00576167 0.81049 0 0 0
-0.236428 -0.594739 0.013446 0 0 0
-0.204035 0.415272 0.734016 0 0 0
0.275269 -0.277703 0.105319 0 0 0
0.643834 -0.429441 0.537797 0 0 0
0.105398 -0.0786543 -0.300879 0 0 0
-0.0724216 0.112842 2.82866 0 0 0
-0.435845 -0.201496 0.484228 0 0 0
-0.0872413 0.265678 0.888014 0 0 0
-0.368278 0.21219 -0.570156 0 0 0
-0.400344 0.311284 -0.233756 0 0 0
0.359671 0.0895337 0.655672 0 0 0
0.187788 0.329102 0.760475 0 0 0
-0.3069 -0.31892 2.82421 0 0 0
-0.375528 -0.998758 0.221025 0 0 0
-0.14247 -0.164917 0.00314808 0 0 0
0.0748416 -0.137007 0.966899 0 0 0
0.468517 0.194302 0.537504 0 0 0
0.689106 -0.407577 2.83539 0 0 0
0.0847042 0.521638 6.59932 0 0 0
-0.00364581 0.427015 -0.931616 0 0 0
-0.139015 -0.375313 0.38036 0 0 0
-0.542545 0.623584 -0.43015 0 0 0
1.58609 1.0472 6.58184 0 0 0
-0.543213 0.198614 0.928825 0 0 0
-0.663222 0.056766 0.277949 0 0 0
-0.368827 -0.256728 -0.637197 0 0 0
0.0758303 -0.189079 5.99367 0 0 0
-0.439407 0.435095 0.344828 0 0 0
-0.526771 -0.252372 -0.940593 0 0 0
0.113797 -0.240883 0.135379 0 0 0
0.038658 -0.533794 0.455618 0 0 0
0.202446 0.106986 0.931955 0 0 0
-0.184429 0.463663 0.698041 0 0 0
-0.101366 -0.125118 0.891772 0 0 0
0.195427 0.691708 -0.674347 0 0 0
0.000351437 0.762659 24.6232 0 0 0
-0.314363 0.46764 -0.105024 0 0 0
0.0921518 0.240259 -0.0747903 0 0 0
-0.228875 -0.0639714 6.01003 0 0 0
0.151116 0.263002 -0.551239 0 0 0
0.298426 0.272973 0.0837457 0 0 0
-0.42841 -0.372168 0.713326 0 0 0
-0.0866892 -0.0434821 0.326976 0 0 0
0.3649 0.183416 0.576997 0 0 0
0.444237 0.617838 6.58928 0 0 0
-0.666174 0.192161 0.00238478 0 0 0
0.26718 0.503682 2.23372 0 0 0
0.213756 0.0179826 -0.10383 0 0 0
-0.43138 0.414379 -0.621184 0 0 0
-0.0273858 0.0334363 2.19941 0 0 0
-0.51958 -0.318552 -0.981745 0 0 0
0.153703 -0.394271 0.620283 0 0 0
0.0655464 -0.762743 -0.591901 0 0 0
0.0676167 -0.127827 0.681796 0 0 0
0.216902 0.379217 -0.793101 0 0 0
-0.680667 0.334038 0.907374 0 0 0
0.368741 -0.390441 -0.147912 0 0 0
0.563191 -0.0591119 5.40522 0 0 0
-0.0188956 -0.355109 0.930851 0 0 0
-0.0799064 0.13711 -0.366323 0 0 0
-0.248677 -0.254054 0.429541 0 0 0
-0.487404 0.042768 0.808157 0 0 0
0.0308679 0.0948225 -0.32217 0 0 0
-0.668904 -0.333148 0.0260006 0 0 0
-0.196534 0.631981 -0.192137 0 0 0
0.268592 0.394207 5.36237 0 0 0
-0.837281 -0.50575 0.779112 0 0 0
-0.0892049 -0.166585 0.0540564 0 0 0
-0.32622 -0.232158 0.233629 0 0 0
0.77366 -0.00843489 0.736633 0 0 0
-0.0108278 -0.12361 0.256985 0 0 0
0.203858 0.0968073 0.139802 0 0 0
-0.796956 -0.117853 -0.591852 0 0 0
-0.123552 0.482521 0.278993 0 0 0
0.214868 0.088527 0.693023 0 0 0
0.176343 -0.28297 0.19117 0 0 0
0.153709 0.193343 6.57879 0 0 0
-0.298775 -0.234738 0.430437 0 0 0
-0.006105 -0.414593 -0.322066 0 0 0
0.256071 0.237958 0.93638 0 0 0
0.216452 -0.463072 0.0328804 0 0 0
-0.194857 0.601011 -0.553399 0 0 0
-0.322717 -0.484204 0.272283 0 0 0
0.999008 -0.165779 -1.7726 0 0 0
0.366326 -0.0211165 -0.534091 0 0 0
-0.220029 -0.91827 5.3727 0 0 0
-0.225438 0.22182 0.75417 0 0 0
-0.396646 -0.00535679 -0.516181 0 0 0
-0.347514 0.106533 -0.0119604 0 0 0
0.339195 -0.959125 0.209512 0 0 0
-0.0400967 0.471849 -22.7404 0 0 0
0.0877407 -0.489451 0.690412 0 0 0
0.0289526 0.115114 0.68971 0 0 0
0.117046 0.437044 36.5695 0 0 0
-0.0311009 0.145855 -0.871048 0 0 0
-0.413027 0.181389 -0.196786 0 0 0
0.289908 0.180118 5.42258 0 0 0
-0.324495 -0.163159 -0.54281 0 0 0
-0.115546 -0.255597 0.494525 0 0 0
0.0248081 -0.246555 -0.986841 0 0 0
0.189835 -0.100408 5.43279 0 0 0
-0.240033 0.0971935 0.120433 0 0 0
0.104031 0.435268 0.600417 0 0 0
0.229082 -0.183844 0.658026 0 0 0
0.396163 -0.243385 -0.0363271 0 0 0
